-116.500359 27.161415 292.143494 
-111.771622 27.376701 294.554962 
-111.684151 27.409744 294.821320 
-104.888489 27.073755 291.230865 
-104.912628 27.091579 291.489197 
-104.790573 27.091860 291.490540 
-104.668510 27.092140 291.491852 
-104.488098 27.099434 291.494293 
-104.424393 27.092701 291.494537 
-104.215050 27.068396 291.237762 
-104.093094 27.068672 291.239105 
-99.009033 27.055227 291.035980 
-98.945580 27.048939 291.036499 
-98.765228 27.055750 291.038635 
-98.701782 27.049479 291.039154 
-98.579880 27.049747 291.040497 
-98.457985 27.050016 291.041809 
-98.336082 27.050285 291.043152 
-98.214172 27.050554 291.044464 
-98.092270 27.050821 291.045807 
-97.970367 27.051090 291.047150 
-97.848465 27.051355 291.048462 
-92.708641 27.031691 290.846130 
-92.586792 27.031946 290.847443 
-92.464943 27.032202 290.848755 
-92.343094 27.032459 290.850067 
-92.221245 27.032717 290.851410 
-92.040787 27.038950 290.853241 
-91.900871 27.008877 290.597046 
-86.714264 26.994926 290.395599 
-86.592575 26.995165 290.396912 
-86.529556 26.989885 290.398041 
-86.407867 26.990129 290.399323 
-86.286179 26.990376 290.400635 
-86.164482 26.990622 290.401947 
-86.042793 26.990864 290.403259 
-85.921104 26.991108 290.404572 
-85.799408 26.991352 290.405884 
-85.677704 26.991596 290.407196 
-116.152084 27.252270 291.838593 
-116.029915 27.252567 291.839935 
-115.907745 27.252863 291.841309 
-115.785568 27.253159 291.842651 
-115.760628 27.278393 292.103241 
-115.638351 27.278688 292.104584 
-115.516068 27.278980 292.105927 
-115.393799 27.279274 292.107300 
-111.613884 27.518950 294.772949 
-111.526207 27.552128 295.039703 
-111.243805 27.519821 294.777039 
-111.120445 27.520111 294.778412 
-110.997093 27.520403 294.779816 
-103.785416 27.191429 291.194672 
-103.721794 27.184752 291.194916 
-103.599846 27.185032 291.196259 
-103.477875 27.185314 291.197601 
-103.355919 27.185596 291.198975 
-103.233963 27.185877 291.200287 
-103.112000 27.186157 291.201630 
-102.990036 27.186438 291.202972 
-97.599548 27.167229 291.002991 
-97.477646 27.167496 291.004333 
-97.355743 27.167767 291.005646 
-97.233841 27.168034 291.006989 
-97.111923 27.168301 291.008301 
-96.931496 27.174957 291.010376 
-96.868111 27.168835 291.010956 
-96.746208 27.169104 291.012299 
-91.593987 27.130648 290.552094 
-91.530830 27.124962 290.552948 
-91.409081 27.125219 290.554260 
-91.287338 27.125475 290.555603 
-91.165588 27.125732 290.556915 
-91.043839 27.125988 290.558228 
-90.922089 27.126245 290.559540 
-85.429832 27.107475 290.361816 
-85.308136 27.107719 290.363129 
-85.186447 27.107965 290.364441 
-85.064751 27.108210 290.365723 
-84.943062 27.108454 290.367065 
-84.821365 27.108698 290.368378 
-84.699661 27.108938 290.369659 
-114.924278 27.370323 291.803650 
-114.679939 27.370916 291.806335 
-114.557755 27.371210 291.807709 
-114.493675 27.363667 291.807465 
-114.371498 27.363972 291.808807 
-114.249321 27.364277 291.810150 
-114.127151 27.364582 291.811523 
-110.685936 27.644972 294.735535 
-110.562584 27.645256 294.736908 
-110.498001 27.638050 294.736877 
-110.374649 27.638340 294.738251 
-110.251274 27.638630 294.739624 
-110.127914 27.638920 294.740997 
-110.004547 27.639212 294.742371 
-109.881180 27.639502 294.743744 
-109.634445 27.640079 294.746460 
-109.511078 27.640368 294.747864 
-109.387711 27.640656 294.749207 
-102.682327 27.309088 291.158325 
-102.618744 27.302502 291.158661 
-102.496796 27.302784 291.160004 
-102.374825 27.303064 291.161316 
-102.252869 27.303347 291.162689 
-102.130898 27.303625 291.164001 
-102.008934 27.303905 291.165344 
-96.497307 27.284962 290.966705 
-96.236420 27.266918 290.711395 
-96.173111 27.260855 290.712006 
-96.051315 27.261127 290.713348 
-95.929497 27.261395 290.714661 
-95.807701 27.261662 290.716003 
-95.685883 27.261929 290.717316 
-90.673798 27.242052 290.514008 
-90.552055 27.242310 290.515350 
-90.430305 27.242567 290.516663 
-90.308556 27.242826 290.517975 
-90.186806 27.243082 290.519287 
-90.065056 27.243340 290.520630 
-89.943298 27.243595 290.521942 
-89.821548 27.243851 290.523254 
-89.699799 27.244104 290.524567 
-89.578041 27.244360 290.525879 
-84.503159 27.200129 290.066620 
-84.322861 27.205713 290.068024 
-84.330101 27.225040 290.325500 
-84.138382 27.200867 290.070526 
-84.027962 27.230843 290.328186 
-83.965019 27.225775 290.329437 
-118.257698 27.510386 291.979462 
-118.135452 27.510689 291.980835 
-113.818642 27.488071 291.767242 
-113.696465 27.488369 291.768585 
-113.574287 27.488667 291.769958 
-113.452103 27.488960 291.771271 
-113.388069 27.481510 291.771088 
-113.265884 27.481815 291.772430 
-113.143707 27.482121 291.773773 
-113.021530 27.482426 291.775146 
-112.841202 27.490435 291.778015 
-112.719009 27.490726 291.779358 
-112.596825 27.491018 291.780701 
-112.474640 27.491312 291.782074 
-109.012009 27.758017 294.704865 
-108.888641 27.758307 294.706207 
-108.765266 27.758595 294.707581 
-108.641899 27.758884 294.708954 
-108.426727 27.733713 294.446777 
-108.303452 27.734003 294.448120 
-108.180183 27.734291 294.449493 
-107.226570 27.710896 294.195923 
-101.701195 27.426460 291.120575 
-101.579231 27.426733 291.121918 
-101.271774 27.420801 291.124969 
-101.149803 27.421082 291.126312 
-101.027832 27.421360 291.127655 
-100.905869 27.421640 291.128967 
-100.783905 27.421921 291.130310 
-100.661934 27.422201 291.131653 
-100.539955 27.422478 291.132965 
-95.378670 27.383926 290.672302 
-95.256859 27.384186 290.673615 
-95.135048 27.384443 290.674927 
-95.071777 27.378471 290.675629 
-94.949966 27.378740 290.676941 
-94.828156 27.379009 290.678284 
-94.706345 27.379278 290.679596 
-89.329773 27.360153 290.480255 
-89.208023 27.360411 290.481567 
-89.086266 27.360666 290.482880 
-88.964508 27.360924 290.484192 
-88.842758 27.361177 290.485504 
-88.647095 27.336828 290.230225 
-84.030479 27.365675 290.537872 
-83.967499 27.360611 290.539093 
-117.575943 27.619118 291.937134 
-112.160271 27.599651 291.735962 
-112.190521 27.617514 291.995117 
-107.804802 27.851536 294.405029 
-107.622681 27.859085 294.407654 
-107.499413 27.859367 294.408997 
-107.376137 27.859650 294.410370 
-105.897156 27.582312 291.544556 
-105.686371 27.557537 291.287415 
-105.564346 27.557827 291.288757 
-105.442322 27.558117 291.290070 
-105.320290 27.558409 291.291412 
-105.198257 27.558699 291.292755 
-100.290672 27.538242 291.087189 
-100.168694 27.538521 291.088470 
-100.046730 27.538801 291.089813 
-99.841202 27.514153 290.833435 
-99.802795 27.539362 291.092499 
-99.597458 27.514711 290.836090 
-99.558853 27.539919 291.095184 
-94.457664 27.494993 290.633820 
-94.277290 27.501434 290.635742 
-94.214050 27.495533 290.636475 
-94.092247 27.495804 290.637817 
-93.970428 27.496071 290.639130 
-93.848618 27.496340 290.640442 
-93.726799 27.496605 290.641754 
-93.604980 27.496872 290.643097 
-93.483170 27.497139 290.644409 
-93.361359 27.497408 290.645752 
-88.472748 27.477201 290.441101 
-88.350990 27.477459 290.442413 
-88.229225 27.477713 290.443726 
-88.107483 27.477972 290.445038 
-87.985725 27.478228 290.446350 
-87.790771 27.453777 290.191040 
-87.669113 27.454033 290.192352 
-117.144859 27.743101 291.894104 
-116.713966 27.736311 291.897827 
-116.591721 27.736626 291.899200 
-116.469475 27.736944 291.900543 
-116.347229 27.737259 291.901917 
-116.224991 27.737574 291.903259 
-116.102753 27.737888 291.904663 
-115.922409 27.746164 291.907654 
-115.800148 27.746466 291.908997 
-111.902161 27.991146 294.576019 
-111.778824 27.991446 294.577362 
-105.891487 27.697495 291.495911 
-104.826530 27.674675 291.248138 
-104.704506 27.674967 291.249481 
-104.436539 27.657150 290.993805 
-104.402061 27.682558 291.253235 
-104.338417 27.675840 291.253510 
-104.157990 27.683121 291.255920 
-104.094345 27.676420 291.256165 
-99.168037 27.637213 290.792328 
-99.046158 27.637484 290.793640 
-98.924294 27.637756 290.794983 
-98.860893 27.631479 290.795502 
-98.739029 27.631760 290.796814 
-98.617165 27.632038 290.798157 
-98.495285 27.632317 290.799469 
-98.373413 27.632597 290.800812 
-98.251541 27.632875 290.802155 
-98.129662 27.633156 290.803497 
-98.007790 27.633432 290.804810 
-92.976440 27.594278 290.343414 
-92.990898 27.613380 290.601196 
-92.869080 27.613647 290.602509 
-92.747261 27.613914 290.603821 
-92.625443 27.614182 290.605164 
-92.503624 27.614447 290.606476 
-87.542717 27.569420 290.145203 
-87.421066 27.569677 290.146515 
-87.299416 27.569935 290.147827 
-87.177757 27.570192 290.149139 
-87.056107 27.570448 290.150452 
-86.934456 27.570705 290.151764 
-86.812790 27.570961 290.153076 
-86.691139 27.571215 290.154388 
-115.607491 27.854126 291.861145 
-115.485252 27.854445 291.862518 
-115.362999 27.854761 291.863892 
-115.085808 27.837507 291.607605 
-115.060371 27.863283 291.868195 
-114.938126 27.863588 291.869568 
-114.751755 27.856333 291.870667 
-111.467529 28.115877 294.532715 
-111.220856 28.116463 294.535431 
-111.250557 28.135069 294.799316 
-111.127129 28.135368 294.800720 
-111.003685 28.135670 294.802063 
-110.880241 28.135969 294.803436 
-110.756798 28.136269 294.804810 
-103.844650 27.792089 291.210083 
-103.722626 27.792383 291.211456 
-103.600594 27.792675 291.212799 
-103.333504 27.774670 290.957031 
-103.269966 27.768036 290.957336 
-103.148041 27.768332 290.958710 
-103.026100 27.768621 290.960022 
-98.065834 27.754711 290.755554 
-97.943962 27.754982 290.756897 
-97.758736 27.749067 290.758789 
-97.636864 27.749348 290.760132 
-97.514992 27.749626 290.761444 
-97.393120 27.749907 290.762787 
-97.271233 27.750185 290.764099 
-97.149361 27.750465 290.765442 
-97.027481 27.750742 290.766785 
-92.254982 27.730131 290.560486 
-92.133171 27.730398 290.561829 
-91.934578 27.705675 290.306152 
-91.812859 27.705944 290.307465 
-91.691139 27.706211 290.308777 
-91.569427 27.706480 290.310089 
-91.524078 27.731735 290.568420 
-86.686409 27.686321 290.105835 
-86.199799 27.687349 290.111084 
-86.078133 27.687605 290.112396 
-85.956482 27.687860 290.113678 
-85.834816 27.688116 290.114990 
-85.713158 27.688370 290.116302 
-85.591507 27.688623 290.117645 
-114.346634 27.954210 291.566711 
-114.102341 27.954826 291.569397 
-113.980194 27.955132 291.570770 
-113.916183 27.947641 291.570557 
-113.794029 27.947960 291.571899 
-113.709320 27.981613 291.834076 
-113.587059 27.981918 291.835419 
-113.369431 27.956661 291.577515 
-113.125107 27.957266 291.580200 
-113.002960 27.957569 291.581543 
-110.287117 28.227562 294.496033 
-110.163773 28.227863 294.497375 
-110.040451 28.228168 294.498779 
-109.917114 28.228470 294.500153 
-109.793777 28.228771 294.501526 
-109.670441 28.229074 294.502899 
-109.547096 28.229374 294.504242 
-102.718208 27.891048 290.914856 
-102.596283 27.891329 290.916199 
-102.532761 27.884758 290.916534 
-102.410835 27.885052 290.917877 
-102.288902 27.885342 290.919189 
-102.166969 27.885635 290.920532 
-102.045036 27.885925 290.921875 
-96.778427 27.866358 290.720642 
-96.656563 27.866638 290.721985 
-96.534683 27.866917 290.723297 
-96.412811 27.867197 290.724640 
-96.290932 27.867474 290.725952 
-96.169060 27.867754 290.727295 
-91.199280 27.822304 290.265320 
-91.077560 27.822573 290.266632 
-90.955849 27.822842 290.267975 
-90.834137 27.823111 290.269287 
-90.712418 27.823380 290.270630 
-90.590698 27.823647 290.271942 
-85.708450 27.803453 290.067627 
-85.586792 27.803711 290.068939 
-85.465141 27.803967 290.070251 
-85.343483 27.804226 290.071594 
-85.221825 27.804482 290.072876 
-85.100159 27.804735 290.074188 
-84.978500 27.804991 290.075500 
-84.856842 27.805246 290.076813 
-84.735184 27.805502 290.078125 
-118.267090 28.118717 291.996124 
-118.144775 28.119032 291.997467 
-112.688454 28.065666 291.535004 
-112.566307 28.065983 291.536377 
-112.444153 28.066298 291.537720 
-108.801239 28.347418 294.463440 
-108.677902 28.347723 294.464813 
-108.554558 28.348024 294.466187 
-108.431221 28.348322 294.467560 
-108.307869 28.348623 294.468903 
-108.184517 28.348923 294.470276 
-108.061180 28.349226 294.471649 
-107.846443 28.323519 294.209473 
-107.262665 28.298759 293.951813 
-107.048965 28.273144 293.690460 
-101.307831 28.002630 290.880951 
-101.185890 28.002922 290.882294 
-101.063957 28.003214 290.883636 
-100.698151 28.004086 290.887634 
-100.576210 28.004374 290.888947 
-95.920013 27.983347 290.681061 
-95.798134 27.983627 290.682373 
-95.676262 27.983908 290.683716 
-95.415962 27.965176 290.428314 
-95.352745 27.959188 290.429016 
-95.230972 27.959469 290.430328 
-95.109184 27.959747 290.431641 
-90.342270 27.939178 290.225739 
-90.220558 27.939447 290.227051 
-89.977135 27.939987 290.229706 
-89.855408 27.940254 290.231018 
-89.733696 27.940521 290.232330 
-89.611977 27.940790 290.233673 
-89.490250 27.941055 290.234955 
-89.368530 27.941322 290.236267 
-84.608841 27.920818 290.030670 
-84.487175 27.921074 290.031952 
-84.365524 27.921331 290.033295 
-84.243858 27.921585 290.034607 
-84.122200 27.921843 290.035919 
-116.205521 28.212774 291.708893 
-112.165779 28.207850 291.751862 
-112.043526 28.208168 291.753235 
-107.685356 28.466354 294.426605 
-107.562012 28.466660 294.427979 
-105.868355 28.157701 291.300110 
-105.599197 28.139542 291.044098 
-105.477188 28.139843 291.045441 
-104.930801 28.148106 291.051910 
-100.326767 28.119902 290.842590 
-100.204834 28.120195 290.843933 
-100.082893 28.120485 290.845245 
-99.960953 28.120777 290.846588 
-99.839012 28.121065 290.847931 
-99.717072 28.121355 290.849274 
-99.595131 28.121645 290.850616 
-94.801781 28.081436 290.385925 
-94.680000 28.081707 290.387238 
-94.558228 28.081976 290.388550 
-94.495041 28.076061 290.389313 
-94.373253 28.076340 290.390625 
-94.251480 28.076618 290.391937 
-93.764351 28.077730 290.397247 
-89.120125 28.056839 290.190002 
-88.998405 28.057104 290.191284 
-88.876694 28.057373 290.192627 
-88.754974 28.057640 290.193939 
-88.633247 28.057905 290.195251 
-88.511520 28.058170 290.196594 
-115.890495 28.320526 291.661957 
-115.768280 28.320852 291.663300 
-115.646065 28.321178 291.664703 
-115.465706 28.329433 291.667664 
-115.343468 28.329748 291.669006 
-115.221252 28.330065 291.670380 
-111.813530 28.579437 294.332001 
-111.785004 28.606058 294.597321 
-111.661591 28.606369 294.598694 
-111.538185 28.606682 294.600098 
-111.355927 28.614561 294.602875 
-105.046944 28.262661 291.001373 
-104.739349 28.256506 291.004303 
-104.617355 28.256809 291.005646 
-104.495346 28.257113 291.006989 
-104.373352 28.257416 291.008331 
-104.129341 28.258018 291.010986 
-104.007339 28.258318 291.012329 
-99.345695 28.237154 290.804108 
-99.223763 28.237446 290.805450 
-99.101822 28.237736 290.806793 
-98.897026 28.212463 290.550385 
-98.775192 28.212753 290.551727 
-98.653358 28.213045 290.553040 
-93.944054 28.198214 290.346069 
-93.880890 28.192350 290.346832 
-93.637329 28.192911 290.349487 
-93.515556 28.193188 290.350830 
-93.393776 28.193468 290.352112 
-93.271996 28.193748 290.353455 
-88.263130 28.173662 290.150146 
-88.141411 28.173931 290.151489 
-88.019691 28.174198 290.152802 
-87.897972 28.174467 290.154114 
-87.776245 28.174730 290.155457 
-87.581436 28.149654 289.900116 
-119.189369 28.442225 291.577820 
-114.751480 28.419756 291.365723 
-114.629372 28.420078 291.367065 
-114.507248 28.420395 291.368408 
-114.385132 28.420710 291.369781 
-114.359200 28.447031 291.630402 
-114.236977 28.447344 291.631744 
-114.172951 28.439840 291.631561 
-111.008812 28.704868 294.292267 
-110.885498 28.705173 294.293610 
-110.821022 28.697952 294.293579 
-110.697723 28.698267 294.294983 
-110.574409 28.698580 294.296326 
-110.451111 28.698893 294.297729 
-110.327797 28.699205 294.299103 
-103.757515 28.373758 290.965729 
-103.635506 28.374062 290.967072 
-103.368324 28.355539 290.711334 
-103.333046 28.381594 290.970764 
-103.211044 28.381884 290.972107 
-103.147499 28.375269 290.972443 
-103.025490 28.375572 290.973785 
-98.404137 28.328428 290.506470 
-98.282295 28.328724 290.507812 
-98.160454 28.329014 290.509125 
-98.038620 28.329308 290.510468 
-97.916786 28.329597 290.511810 
-97.794937 28.329887 290.513123 
-97.673096 28.330181 290.514465 
-97.429420 28.330759 290.517120 
-97.307564 28.331047 290.518463 
-93.144966 28.308891 290.305603 
-92.657852 28.310015 290.310883 
-92.536079 28.310295 290.312225 
-92.414299 28.310575 290.313538 
-92.292511 28.310852 290.314850 
-92.170731 28.311129 290.316193 
-92.048943 28.311405 290.317505 
-87.274536 28.270609 289.853851 
-87.152916 28.270866 289.855164 
-87.090012 28.265556 289.856262 
-86.968399 28.265823 289.857574 
-86.846779 28.266088 289.858887 
-86.725151 28.266356 289.860168 
-119.060402 28.557091 291.529541 
-118.816040 28.557751 291.532257 
-118.693855 28.558081 291.533630 
-118.304764 28.585590 291.798676 
-113.645927 28.537247 291.328339 
-113.523796 28.537565 291.329712 
-113.401680 28.537884 291.331055 
-113.337746 28.530447 291.330902 
-113.215630 28.530773 291.332245 
-113.093506 28.531101 291.333618 
-112.971382 28.531427 291.334961 
-109.951828 28.816139 294.253723 
-109.828522 28.816454 294.255066 
-109.646332 28.824202 294.257782 
-109.581902 28.817080 294.257812 
-109.458588 28.817392 294.259186 
-109.335281 28.817707 294.260529 
-109.211975 28.818018 294.261932 
-109.088654 28.818329 294.263306 
-108.965347 28.818640 294.264679 
-108.842033 28.818953 294.266052 
-108.718719 28.819262 294.267395 
-106.786087 28.691191 292.970337 
-102.631065 28.472008 290.669922 
-102.509171 28.472301 290.671265 
-102.387260 28.472595 290.672577 
-102.323807 28.466049 290.672943 
-102.201912 28.466351 290.674286 
-102.080002 28.466652 290.675629 
-101.958107 28.466957 290.676971 
-97.058372 28.446421 290.471771 
-96.936531 28.446711 290.473083 
-96.814690 28.447004 290.474457 
-96.692848 28.447292 290.475739 
-96.570992 28.447580 290.477081 
-96.449158 28.447870 290.478424 
-91.664841 28.407145 290.014313 
-91.678383 28.427097 290.272186 
-91.480133 28.401747 290.016510 
-91.434814 28.427654 290.274841 
-91.313034 28.427933 290.276154 
-91.115089 28.402584 290.020477 
-86.476982 28.381691 289.813568 
-86.355362 28.381960 289.814880 
-86.233749 28.382229 289.816223 
-86.112129 28.382496 289.817505 
-85.990509 28.382763 289.818817 
-85.868889 28.383030 289.820160 
-85.747261 28.383297 289.821442 
-85.625633 28.383560 289.822754 
-117.831802 28.674911 291.493408 
-117.866974 28.693411 291.752686 
-117.587425 28.675570 291.496124 
-117.564278 28.702194 291.757111 
-117.441986 28.702520 291.758453 
-117.319695 28.702848 291.759827 
-117.197403 28.703175 291.761200 
-112.662476 28.654408 291.289490 
-112.540352 28.654724 291.290833 
-112.418221 28.655043 291.292206 
-112.296097 28.655361 291.293549 
-112.232224 28.648016 291.293457 
-112.204483 28.674526 291.554047 
-108.466080 28.935883 294.220551 
-108.342773 28.936195 294.221924 
-108.219452 28.936506 294.223297 
-108.096146 28.936819 294.224670 
-107.972824 28.937132 294.226044 
-107.849503 28.937441 294.227417 
-107.726189 28.937750 294.228760 
-107.388481 28.911821 293.967957 
-107.083801 28.859173 293.443512 
-101.708488 28.582256 290.630127 
-101.528107 28.589338 290.632416 
-101.464684 28.582863 290.632812 
-101.342789 28.583166 290.634155 
-101.220886 28.583469 290.635498 
-101.098984 28.583773 290.636841 
-96.199966 28.563221 290.431641 
-96.078125 28.563513 290.432983 
-95.956284 28.563805 290.434296 
-95.834442 28.564095 290.435638 
-95.712601 28.564384 290.436951 
-95.590752 28.564672 290.438263 
-95.468903 28.564960 290.439606 
-90.942474 28.543594 290.230743 
-90.686150 28.524023 289.975433 
-90.698906 28.544153 290.233368 
-90.501465 28.518703 289.977692 
-90.379791 28.518984 289.979004 
-90.258102 28.519260 289.980316 
-85.742340 28.498070 289.772125 
-85.620728 28.498341 289.773438 
-85.377487 28.498875 289.776062 
-85.255867 28.499142 289.777344 
-85.134247 28.499411 289.778687 
-85.012627 28.499674 289.779968 
-84.890999 28.499941 289.781281 
-84.769371 28.500206 289.782623 
-116.847557 28.792059 291.454437 
-116.481003 28.793051 291.458527 
-116.416939 28.785368 291.458221 
-116.294754 28.785707 291.459595 
-116.172569 28.786047 291.460968 
-116.050385 28.786383 291.462341 
-115.870041 28.794689 291.465332 
-112.198051 28.789228 291.504303 
-112.012817 29.084406 294.397705 
-105.843704 28.745783 291.053833 
-105.574493 28.727076 290.797821 
-105.510918 28.720270 290.798035 
-105.388947 28.720585 290.799377 
-105.266975 28.720898 290.800720 
-100.361763 28.700264 290.595245 
-100.239861 28.700567 290.596558 
-100.117950 28.700869 290.597900 
-99.996048 28.701172 290.599243 
-99.874138 28.701471 290.600586 
-99.752235 28.701771 290.601929 
-95.140076 28.654373 290.135376 
-95.097885 28.680582 290.394043 
-94.976044 28.680872 290.395386 
-94.854195 28.681162 290.396698 
-94.732346 28.681450 290.398041 
-94.610504 28.681740 290.399353 
-90.072533 28.640062 289.932526 
-90.009552 28.634520 289.933502 
-89.887878 28.634798 289.934814 
-89.766190 28.635078 289.936096 
-89.644508 28.635357 289.937439 
-89.522820 28.635635 289.938751 
-84.642853 28.615225 289.734467 
-84.521233 28.615492 289.735779 
-84.399612 28.615761 289.737091 
-84.277992 28.616026 289.738403 
-84.097557 28.621613 289.739777 
-83.836090 28.570511 289.229004 
-115.496750 28.910189 291.419464 
-115.432747 28.902590 291.419220 
-115.310555 28.902929 291.420593 
-115.188370 28.903267 291.421967 
-114.885788 28.911831 291.426239 
-114.763580 28.912155 291.427582 
-114.699593 28.904615 291.427399 
-114.519196 28.912807 291.430298 
-111.818619 29.193302 294.349121 
-111.695244 29.193628 294.350494 
-111.571861 29.193951 294.351898 
-111.448494 29.194277 294.353271 
-111.325104 29.194599 294.354614 
-111.201729 29.194923 294.356018 
-111.078346 29.195244 294.357391 
-104.958549 28.843178 290.754761 
-104.836578 28.843485 290.756073 
-104.714607 28.843790 290.757416 
-104.651077 28.837057 290.757660 
-104.529114 28.837374 290.759033 
-104.407150 28.837687 290.760376 
-104.285172 28.838001 290.761719 
-104.041237 28.838627 290.764404 
-103.919266 28.838938 290.765747 
-99.502655 28.817039 290.554901 
-99.380753 28.817341 290.556244 
-99.258835 28.817644 290.557556 
-99.136932 28.817945 290.558899 
-99.015022 28.818247 290.560242 
-98.893120 28.818548 290.561584 
-94.282402 28.771030 290.095032 
-94.102020 28.777485 290.096893 
-94.038918 28.771612 290.097656 
-93.917175 28.771904 290.098999 
-93.795425 28.772194 290.100311 
-93.673683 28.772484 290.101624 
-88.909233 28.751705 289.895752 
-88.787552 28.751984 289.897064 
-88.665863 28.752262 289.898376 
-88.544182 28.752541 289.899689 
-88.422501 28.752817 289.901001 
-88.300812 28.753096 289.902344 
-83.838310 28.705744 289.436554 
-83.716797 28.706013 289.437866 
-118.708389 29.050615 291.595398 
-118.586121 29.050951 291.596741 
-114.171921 29.001438 291.123779 
-114.049835 29.001768 291.125122 
-113.927750 29.002096 291.126465 
-113.657135 29.029612 291.389771 
-113.497574 28.995634 291.130371 
-110.825310 29.311756 294.310181 
-110.607986 29.285130 294.047607 
-110.484711 29.285458 294.048981 
-110.361435 29.285780 294.050354 
-110.238159 29.286106 294.051727 
-110.114876 29.286430 294.053101 
-109.991592 29.286753 294.054474 
-103.669273 28.954140 290.718567 
-103.547310 28.954456 290.719910 
-103.425346 28.954771 290.721252 
-103.303375 28.955082 290.722595 
-103.181404 28.955395 290.723938 
-103.059425 28.955708 290.725281 
-102.937462 28.956020 290.726624 
-98.643547 28.933792 290.514435 
-98.521645 28.934095 290.515778 
-98.399742 28.934399 290.517090 
-98.277832 28.934700 290.518433 
-98.155922 28.935001 290.519775 
-98.034012 28.935301 290.521088 
-97.830070 28.909405 290.264679 
-93.546471 28.887369 290.053223 
-93.424744 28.887661 290.054565 
-93.302986 28.887953 290.055878 
-93.181252 28.888245 290.057190 
-93.059509 28.888536 290.058533 
-92.937759 28.888826 290.059845 
-92.572517 28.889692 290.063812 
-88.052284 28.868303 289.855286 
-87.930595 28.868580 289.856567 
-87.808914 28.868860 289.857910 
-87.687233 28.869139 289.859222 
-87.565544 28.869413 289.860535 
-118.234879 29.139307 291.289703 
-118.112732 29.139648 291.291046 
-117.990578 29.139988 291.292419 
-117.845596 29.167397 291.554749 
-117.723328 29.167734 291.556091 
-117.601074 29.168072 291.557465 
-113.188507 29.118458 291.084503 
-113.066406 29.118786 291.085846 
-112.944321 29.119114 291.087189 
-112.880463 29.111721 291.087067 
-112.758377 29.112061 291.088440 
-112.672890 29.146725 291.350494 
-109.615501 29.403469 294.008514 
-109.492226 29.403793 294.009888 
-109.368950 29.404119 294.011292 
-109.245667 29.404444 294.012634 
-109.122391 29.404768 294.014008 
-108.999107 29.405092 294.015411 
-108.875832 29.405416 294.016754 
-102.542862 29.051683 290.422211 
-102.565514 29.071518 290.680664 
-102.443542 29.071833 290.682007 
-102.321579 29.072145 290.683350 
-102.199600 29.072460 290.684692 
-101.991989 29.046385 290.427917 
-97.702522 29.024223 290.216156 
-97.580727 29.024527 290.217468 
-97.458916 29.024828 290.218781 
-97.337105 29.025133 290.220123 
-97.215309 29.025434 290.221466 
-97.093498 29.025738 290.222809 
-96.971680 29.026039 290.224121 
-92.323586 29.004848 290.016602 
-92.201851 29.005142 290.017944 
-92.080109 29.005430 290.019257 
-91.958351 29.005722 290.020599 
-91.836601 29.006008 290.021912 
-91.714859 29.006300 290.023254 
-87.317032 28.984592 289.813385 
-87.195343 28.984875 289.814697 
-87.073662 28.985151 289.816010 
-86.951981 28.985430 289.817322 
-86.830292 28.985708 289.818634 
-86.708603 28.985983 289.819946 
-117.128502 29.256660 291.251648 
-117.006348 29.257004 291.253021 
-116.884193 29.257341 291.254364 
-116.860542 29.284508 291.515350 
-116.698013 29.249983 291.255432 
-116.575851 29.250334 291.256805 
-116.453705 29.250683 291.258179 
-112.205086 29.235460 291.045105 
-108.623032 29.521793 293.969360 
-108.440788 29.529457 293.971954 
-108.317497 29.529772 293.973328 
-108.253189 29.522768 293.973450 
-108.129906 29.523094 293.974823 
-108.006622 29.523417 293.976196 
-107.883339 29.523739 293.977600 
-107.760048 29.524061 293.978943 
-107.636765 29.524384 293.980316 
-107.513474 29.524704 293.981659 
-107.085136 29.471207 293.457764 
-101.827667 29.187933 290.638672 
-101.561859 29.168547 290.382812 
-101.439980 29.168852 290.384155 
-101.376633 29.162390 290.384583 
-101.254761 29.162703 290.385925 
-101.132889 29.163017 290.387268 
-96.844147 29.140829 290.175446 
-96.722351 29.141134 290.176819 
-96.600540 29.141439 290.178101 
-96.478737 29.141741 290.179443 
-96.356926 29.142044 290.180786 
-96.235130 29.142345 290.182129 
-96.113319 29.142649 290.183441 
-95.991501 29.142948 290.184753 
-95.869690 29.143251 290.186096 
-95.747887 29.143549 290.187439 
-91.465942 29.121431 289.975952 
-91.344193 29.121719 289.977264 
-91.222458 29.122011 289.978577 
-91.100708 29.122301 289.979919 
-90.978958 29.122587 289.981232 
-90.857208 29.122879 289.982544 
-86.581787 29.100857 289.771362 
-86.329155 29.080467 289.516235 
-86.338425 29.101414 289.774017 
-86.216736 29.101690 289.775299 
-86.023193 29.075790 289.520020 
-85.901604 29.076067 289.521332 
-116.144295 29.373663 291.212158 
-115.899979 29.374344 291.214874 
-115.875504 29.401606 291.475861 
-115.713837 29.367067 291.216003 
-115.591675 29.367414 291.217346 
-115.469521 29.367764 291.218719 
-111.921997 29.670897 294.148590 
-111.762543 29.636309 293.884613 
-111.675278 29.671539 294.151306 
-105.606995 29.306181 290.547607 
-105.485054 29.306498 290.548950 
-105.421555 29.299709 290.549194 
-105.329681 29.333807 290.810120 
-105.207634 29.334120 290.811462 
-100.824600 29.284781 290.340668 
-100.761276 29.278370 290.341125 
-100.639404 29.278683 290.342438 
-100.517540 29.278999 290.343811 
-100.395660 29.279312 290.345123 
-100.273796 29.279627 290.346466 
-100.151917 29.279938 290.347778 
-100.030045 29.280251 290.349152 
-99.908173 29.280565 290.350464 
-99.786293 29.280874 290.351807 
-95.620369 29.258324 290.138641 
-95.498566 29.258629 290.139984 
-95.376755 29.258930 290.141296 
-95.254951 29.259232 290.142670 
-95.133133 29.259533 290.143951 
-95.011322 29.259832 290.145294 
-90.730042 29.237688 289.933807 
-90.608315 29.237980 289.935150 
-90.486565 29.238272 289.936462 
-90.364815 29.238562 289.937775 
-90.243065 29.238848 289.939087 
-90.045982 29.212778 289.683441 
-85.774887 29.190804 289.472626 
-85.594505 29.196537 289.474091 
-85.472923 29.196806 289.475372 
-85.410149 29.191643 289.476562 
-85.288574 29.191923 289.477905 
-85.166985 29.192202 289.479187 
-84.802238 29.193031 289.483124 
-118.988762 29.515072 291.391663 
-115.160072 29.490648 291.172546 
-115.037926 29.490993 291.173920 
-114.915756 29.491333 291.175262 
-114.574829 29.465038 290.918793 
-114.485352 29.484833 291.179169 
-114.304932 29.493027 291.182037 
-114.182770 29.493364 291.183411 
-114.060593 29.493700 291.184753 
-111.480972 29.780230 294.102234 
-111.357620 29.780567 294.103607 
-111.234276 29.780903 294.104980 
-111.110931 29.781239 294.106354 
-110.987579 29.781572 294.107727 
-110.864227 29.781908 294.109100 
-110.740875 29.782240 294.110474 
-104.869072 29.422398 290.505341 
-104.805595 29.415661 290.505615 
-104.683662 29.415989 290.506958 
-104.561729 29.416313 290.508301 
-104.439789 29.416637 290.509644 
-104.317863 29.416967 290.511017 
-104.195923 29.417290 290.512329 
-104.073997 29.417614 290.513672 
-103.952049 29.417938 290.515015 
-103.830109 29.418261 290.516357 
-99.658447 29.395584 290.302887 
-99.536575 29.395899 290.304230 
-99.414703 29.396214 290.305573 
-99.292839 29.396524 290.306915 
-99.170952 29.396839 290.308228 
-99.049088 29.397150 290.309570 
-98.868599 29.404024 290.311676 
-94.762016 29.374884 290.097778 
-94.640205 29.375187 290.099091 
-94.518402 29.375488 290.100403 
-94.396599 29.375792 290.101746 
-94.274780 29.376091 290.103088 
-94.152969 29.376392 290.104401 
-89.797279 29.327747 289.635925 
-89.675644 29.328039 289.637238 
-89.432350 29.328621 289.639862 
-89.310707 29.328911 289.641205 
-84.981461 29.312309 289.430511 
-84.918701 29.307186 289.431702 
-84.675545 29.307747 289.434326 
-84.553970 29.308025 289.435669 
-84.432381 29.308304 289.436981 
-84.310799 29.308580 289.438263 
-118.981567 29.629251 291.341034 
-118.859337 29.629602 291.342407 
-118.737114 29.629957 291.343781 
-118.673012 29.622103 291.343384 
-118.428558 29.622824 291.346130 
-117.881493 29.632404 291.353271 
-113.591438 29.581915 290.879059 
-113.469376 29.582256 290.880402 
-113.320717 29.609999 291.142334 
-113.198547 29.610336 291.143707 
-113.076378 29.610674 291.145050 
-110.393852 29.871027 293.798798 
-110.270615 29.871363 293.800140 
-110.240997 29.899195 294.065460 
-110.024124 29.872038 293.802917 
-109.900879 29.872374 293.804291 
-109.777626 29.872709 293.805664 
-109.654373 29.873041 293.807007 
-103.579979 29.533224 290.468628 
-103.458054 29.533550 290.469971 
-103.336121 29.533876 290.471313 
-103.155663 29.541121 290.473633 
-103.033714 29.541433 290.474976 
-102.970299 29.534849 290.475342 
-98.657959 29.491959 290.004944 
-98.677498 29.512461 290.263214 
-98.555626 29.512775 290.264557 
-98.433754 29.513088 290.265900 
-98.311882 29.513399 290.267212 
-98.107681 29.486980 290.010864 
-93.766373 29.470909 289.799957 
-93.644669 29.471201 289.801270 
-93.581635 29.465374 289.802063 
-93.459923 29.465675 289.803375 
-93.338219 29.465977 289.804718 
-93.216507 29.466278 289.806030 
-89.062027 29.443851 289.593597 
-88.940384 29.444145 289.594910 
-88.818741 29.444435 289.596252 
-88.697098 29.444725 289.597534 
-88.575455 29.445017 289.598877 
-88.453804 29.445307 289.600189 
-88.332169 29.445597 289.601501 
-88.210518 29.445883 289.602814 
-84.003677 29.428856 289.390747 
-84.011086 29.450298 289.648621 
-83.889404 29.450575 289.649933 
-117.530640 29.720016 291.045715 
-117.408508 29.720369 291.047089 
-117.286385 29.720722 291.048431 
-117.164253 29.721071 291.049774 
-117.140938 29.748682 291.310760 
-116.896477 29.749376 291.313477 
-112.730118 29.698437 290.837891 
-112.608055 29.698778 290.839233 
-112.486000 29.699118 290.840607 
-112.363930 29.699459 290.841949 
-112.300156 29.692116 290.841888 
-112.178093 29.692467 290.843231 
-109.342476 29.996620 293.760437 
-109.278168 29.989536 293.760529 
-109.154922 29.989876 293.761902 
-109.031670 29.990210 293.763275 
-108.908432 29.990547 293.764648 
-108.785179 29.990881 293.766022 
-108.661926 29.991215 293.767395 
-102.720184 29.649790 290.427551 
-102.598244 29.650112 290.428864 
-102.476318 29.650440 290.430206 
-102.354370 29.650764 290.431549 
-102.232445 29.651089 290.432892 
-102.110489 29.651411 290.434235 
-97.940308 29.628685 290.220764 
-97.677803 29.608631 289.965088 
-97.696564 29.629314 290.223450 
-97.574692 29.629625 290.224762 
-97.371101 29.603106 289.968414 
-97.249329 29.603418 289.969727 
-93.030426 29.586950 289.757446 
-92.967430 29.581177 289.758301 
-92.845718 29.581476 289.759613 
-92.724014 29.581779 289.760925 
-92.602310 29.582081 289.762268 
-92.480606 29.582384 289.763580 
-87.961853 29.560801 289.555115 
-87.840210 29.561092 289.556396 
-87.718567 29.561380 289.557739 
-87.596924 29.561670 289.559052 
-87.475273 29.561956 289.560364 
-83.884285 29.565039 289.599640 
-116.546448 29.836878 291.005768 
-116.424316 29.837231 291.007141 
-116.302193 29.837584 291.008484 
-116.180061 29.837933 291.009857 
-116.155922 29.865639 291.270813 
-116.033699 29.865990 291.272186 
-112.143661 29.834196 291.053070 
-112.174454 29.854174 291.312653 
-111.800537 30.105309 293.682190 
-108.039230 30.108368 293.723541 
-107.915970 30.108702 293.724884 
-107.792732 30.109037 293.726288 
-107.669479 30.109371 293.727661 
-107.546227 30.109705 293.729004 
-107.422966 30.110037 293.730377 
-107.117744 30.055140 293.205139 
-101.860397 29.766331 290.386322 
-101.738457 29.766655 290.387634 
-101.616516 29.766979 290.388977 
-101.494576 29.767305 290.390320 
-101.372643 29.767630 290.391663 
-101.192108 29.774710 290.393890 
-96.941216 29.724670 289.922516 
-96.878075 29.718578 289.923187 
-96.756310 29.718895 289.924530 
-96.634537 29.719208 289.925842 
-96.512764 29.719521 289.927185 
-96.390984 29.719833 289.928497 
-91.866417 29.698160 289.719696 
-91.744713 29.698460 289.721039 
-91.501282 29.699062 289.723663 
-91.379578 29.699360 289.724976 
-87.226624 29.676846 289.512543 
-87.104988 29.677135 289.513855 
-86.983337 29.677425 289.515167 
-86.861687 29.677713 289.516479 
-86.740051 29.678003 289.517792 
-115.562279 29.953726 290.965759 
-115.440140 29.954079 290.967102 
-114.976738 29.927725 290.712006 
-114.854713 29.928076 290.713348 
-114.887733 29.947937 290.972382 
-114.707352 29.956179 290.975250 
-111.793831 30.220604 293.631317 
-111.670616 30.220951 293.632690 
-111.606277 30.213684 293.632690 
-111.518959 30.249481 293.899353 
-111.395638 30.249825 293.900726 
-111.272316 30.250170 293.902100 
-105.874840 29.931293 290.810883 
-105.574890 29.877161 290.294922 
-105.394539 29.884613 290.297363 
-105.272644 29.884939 290.298676 
-105.297737 29.905384 290.557404 
-105.175735 29.905718 290.558777 
-104.965401 29.878847 290.301666 
-100.915794 29.855724 290.086914 
-100.793968 29.856052 290.088226 
-100.613556 29.863092 290.090424 
-100.550293 29.856703 290.090912 
-100.428459 29.857029 290.092255 
-100.306625 29.857355 290.093597 
-100.184784 29.857676 290.094940 
-100.062950 29.858000 290.096252 
-95.897980 29.835279 289.883179 
-95.776215 29.835596 289.884521 
-95.654442 29.835909 289.885834 
-95.532669 29.836222 289.887177 
-95.410889 29.836533 289.888489 
-95.289116 29.836845 289.889832 
-91.130531 29.814207 289.677063 
-91.008820 29.814508 289.678375 
-90.887115 29.814808 289.679688 
-90.765404 29.815109 289.681000 
-90.643700 29.815409 289.682343 
-86.491409 29.792860 289.469879 
-86.369774 29.793150 289.471191 
-86.248131 29.793440 289.472504 
-86.126480 29.793728 289.473816 
-86.004845 29.794018 289.475128 
-119.196693 30.084696 291.134705 
-119.016373 30.093313 291.137817 
-118.671722 30.066437 290.880951 
-118.707932 30.086187 291.140198 
-118.160973 30.095837 291.147369 
-114.578102 30.070557 290.925598 
-114.455971 30.070910 290.926971 
-114.147858 30.064127 290.929565 
-114.025719 30.064486 290.930908 
-113.903603 30.064848 290.932281 
-113.723167 30.073009 290.935120 
-113.601028 30.073357 290.936493 
-113.478882 30.073702 290.937836 
-111.453308 30.372440 293.849731 
-111.329987 30.372780 293.851135 
-111.018974 30.366236 293.853882 
-110.895660 30.366583 293.855225 
-110.772346 30.366930 293.856628 
-110.590057 30.374798 293.859344 
-110.525711 30.367622 293.859406 
-110.402390 30.367966 293.860779 
-104.656616 30.000633 290.254517 
-104.534714 30.000961 290.255859 
-104.412811 30.001289 290.257202 
-104.349403 29.994595 290.257507 
-104.227509 29.994930 290.258850 
-104.105598 29.995266 290.260193 
-99.998146 29.978785 290.046265 
-99.876312 29.979101 290.047607 
-99.754486 29.979416 290.048950 
-99.691246 29.973099 290.049469 
-99.569405 29.973425 290.050812 
-99.447571 29.973749 290.052155 
-99.325729 29.974070 290.053467 
-99.145264 29.980984 290.055603 
-99.082054 29.974716 290.056152 
-95.039673 29.951643 289.841736 
-94.917892 29.951956 289.843048 
-94.796127 29.952269 289.844391 
-94.674347 29.952581 289.845703 
-94.552574 29.952892 289.847046 
-94.430794 29.953203 289.848358 
-90.394661 29.930225 289.634277 
-90.272949 29.930525 289.635590 
-90.151253 29.930826 289.636902 
-90.029533 29.931128 289.638214 
-89.907829 29.931427 289.639526 
-85.756218 29.908840 289.427094 
-85.634567 29.909132 289.428436 
-85.512924 29.909422 289.429718 
-85.319939 29.882793 289.174438 
-85.198402 29.883083 289.175751 
-117.542595 30.211592 291.102997 
-117.420387 30.211952 291.104370 
-117.298180 30.212311 291.105743 
-113.132072 30.160826 290.630249 
-112.888016 30.161528 290.632965 
-112.861122 30.189472 290.893494 
-112.702240 30.154510 290.634247 
-112.580215 30.154869 290.635620 
-110.149055 30.484011 293.812408 
-110.025726 30.484360 293.813812 
-109.902412 30.484707 293.815155 
-109.779106 30.485054 293.816559 
-109.655769 30.485397 293.817932 
-109.439354 30.457708 293.555389 
-109.316147 30.458055 293.556763 
-103.796799 30.116962 290.212921 
-103.674896 30.117290 290.214264 
-103.552994 30.117615 290.215576 
-103.489624 30.110992 290.215942 
-103.367729 30.111330 290.217316 
-103.245819 30.111668 290.218658 
-103.002014 30.112335 290.221344 
-102.880112 30.112671 290.222656 
-98.832207 30.089468 290.007935 
-98.710373 30.089792 290.009247 
-98.588531 30.090117 290.010590 
-98.466690 30.090441 290.011932 
-98.344849 30.090763 290.013275 
-94.303139 30.067663 289.798859 
-94.181366 30.067976 289.800171 
-94.059593 30.068291 289.801514 
-93.937828 30.068600 289.802826 
-93.816048 30.068913 289.804138 
-93.694275 30.069223 289.805481 
-89.525002 30.024899 289.334747 
-89.403389 30.025188 289.336060 
-89.281784 30.025482 289.337372 
-89.218971 30.020018 289.338409 
-89.097351 30.020317 289.339722 
-84.949982 29.997772 289.127625 
-84.769592 30.003448 289.129028 
-84.706902 29.998352 289.130249 
-84.585365 29.998642 289.131561 
-84.463829 29.998932 289.132874 
-116.825508 30.299532 290.798981 
-116.703407 30.299896 290.800354 
-116.581314 30.300259 290.801727 
-116.435402 30.328770 291.064026 
-116.313202 30.329128 291.065369 
-112.270775 30.277170 290.588531 
-112.148743 30.277523 290.589905 
-112.179611 30.297897 290.849060 
-112.210541 30.318308 291.108643 
-109.063042 30.573977 293.508331 
-108.939827 30.574326 293.509705 
-108.816612 30.574673 293.511078 
-108.693390 30.575022 293.512451 
-108.570175 30.575369 293.513855 
-108.446953 30.575712 293.515198 
-107.091743 30.515791 293.001190 
-102.629852 30.227367 290.174286 
-102.507957 30.227705 290.175659 
-102.386047 30.228041 290.176971 
-102.264153 30.228376 290.178345 
-102.142242 30.228710 290.179657 
-102.020340 30.229046 290.181030 
-98.095016 30.205486 289.964935 
-97.973183 30.205812 289.966278 
-97.851349 30.206137 289.967621 
-97.729500 30.206459 289.968933 
-97.607674 30.206785 289.970276 
-97.485825 30.207106 289.971588 
-93.444855 30.183966 289.757172 
-93.323090 30.184282 289.758514 
-93.201317 30.184593 289.759857 
-93.001541 30.157623 289.503845 
-92.879868 30.157936 289.505188 
-88.848541 30.134968 289.291443 
-88.668144 30.140985 289.293030 
-88.546532 30.141277 289.294342 
-88.483742 30.135874 289.295410 
-88.362137 30.136177 289.296722 
-84.336967 30.113297 289.083313 
-84.215424 30.113588 289.084625 
-84.035011 30.119204 289.085968 
-83.920944 30.141577 289.345154 
-115.963455 30.415873 290.757172 
-115.572632 30.445210 291.022186 
-115.450432 30.445570 291.023560 
-115.289116 30.410114 290.763794 
-111.830841 30.688519 293.426666 
-108.193863 30.691614 293.466644 
-108.070648 30.691963 293.468048 
-107.947441 30.692310 293.469421 
-107.824211 30.692657 293.470795 
-107.700996 30.693003 293.472137 
-107.577774 30.693350 293.473511 
-107.240189 30.665857 293.212799 
-101.892006 30.343384 290.131195 
-101.770103 30.343721 290.132538 
-101.648201 30.344055 290.133881 
-101.526299 30.344393 290.135223 
-101.404396 30.344727 290.136566 
-101.282486 30.345060 290.137909 
-97.236008 30.321802 289.923157 
-97.114166 30.322128 289.924500 
-96.910934 30.294985 289.668152 
-96.789200 30.295309 289.669464 
-96.667465 30.295631 289.670807 
-92.708359 30.299929 289.714081 
-92.586594 30.300243 289.715424 
-92.387321 30.273172 289.459442 
-92.265656 30.273485 289.460754 
-92.143982 30.273798 289.462067 
-88.113335 30.250793 289.248352 
-87.991730 30.251097 289.249664 
-87.870132 30.251398 289.250977 
-87.748528 30.251699 289.252289 
-87.626930 30.252001 289.253601 
-87.505325 30.252302 289.254944 
-87.383720 30.252602 289.256256 
-87.262115 30.252903 289.257568 
-84.037254 30.255424 289.292877 
-118.561653 30.557989 290.938263 
-114.979340 30.532564 290.716614 
-114.857239 30.532927 290.717957 
-114.735138 30.533287 290.719330 
-114.671318 30.525766 290.719177 
-114.549225 30.526138 290.720551 
-114.427124 30.526510 290.721893 
-111.672508 30.832645 293.641846 
-111.549232 30.833004 293.643219 
-105.905251 30.508783 290.555115 
-105.424812 30.461063 290.041626 
-105.302948 30.461401 290.042969 
-105.181084 30.461739 290.044312 
-105.206230 30.482731 290.303009 
-105.084274 30.483078 290.304382 
-104.962296 30.483423 290.305695 
-100.888763 30.438793 289.832123 
-100.825554 30.432390 289.832611 
-100.703758 30.432726 289.833954 
-100.581955 30.433062 289.835297 
-100.544647 30.461050 290.094666 
-100.422752 30.461386 290.096008 
-96.417847 30.410196 289.622284 
-96.296120 30.410524 289.623627 
-96.174393 30.410849 289.624939 
-96.052658 30.411173 289.626282 
-95.930923 30.411499 289.627594 
-95.809189 30.411821 289.628937 
-91.894783 30.388376 289.413574 
-91.773125 30.388693 289.414886 
-91.592674 30.394964 289.416595 
-91.529785 30.389318 289.417542 
-91.408119 30.389629 289.418854 
-91.164780 30.390253 289.421509 
-91.043106 30.390564 289.422821 
-87.378136 30.366589 289.205139 
-87.134949 30.367191 289.207764 
-87.013336 30.367495 289.209106 
-86.891739 30.367794 289.210388 
-86.770134 30.368095 289.211731 
-86.648529 30.368395 289.213043 
-118.431885 30.672077 290.888031 
-118.309723 30.672451 290.889404 
-118.287552 30.700998 291.150726 
-118.123589 30.665026 290.890442 
-118.043007 30.701740 291.153442 
-114.117310 30.648869 290.674561 
-113.995216 30.649233 290.675934 
-113.873108 30.649595 290.677277 
-113.751007 30.649956 290.678650 
-113.533043 30.622284 290.420837 
-113.565147 30.642889 290.679932 
-113.443039 30.643259 290.681274 
-113.262596 30.651398 290.684082 
-113.018379 30.652117 290.686798 
-111.049164 30.949539 293.597198 
-110.866898 30.957453 293.599915 
-110.802589 30.950258 293.599945 
-110.679314 30.950617 293.601349 
-110.556030 30.950977 293.602722 
-110.432747 30.951332 293.604095 
-110.309448 30.951689 293.605469 
-110.186165 30.952045 293.606842 
-110.062881 30.952402 293.608215 
-104.565025 30.577225 289.999603 
-104.443153 30.577564 290.000946 
-104.321281 30.577902 290.002258 
-104.257942 30.571222 290.002625 
-104.136078 30.571569 290.003967 
-104.014221 30.571917 290.005310 
-100.088341 30.548252 289.789307 
-99.966537 30.548590 289.790619 
-99.844749 30.548929 289.791992 
-99.722954 30.549265 289.793304 
-99.601151 30.549601 289.794678 
-95.681328 30.526035 289.578979 
-95.559593 30.526360 289.580292 
-95.437859 30.526684 289.581635 
-95.316132 30.527010 289.582947 
-95.194397 30.527334 289.584290 
-95.072662 30.527657 289.585602 
-94.950920 30.527983 289.586945 
-94.829185 30.528305 289.588287 
-91.158928 30.504177 289.370239 
-90.915611 30.504807 289.372894 
-90.793938 30.505117 289.374207 
-90.672264 30.505432 289.375519 
-90.550606 30.505745 289.376862 
-90.428932 30.506054 289.378174 
-90.307251 30.506365 289.379486 
-86.399765 30.482954 289.164459 
-86.278168 30.483253 289.165771 
-86.156570 30.483557 289.167084 
-86.034966 30.483856 289.168396 
-85.913361 30.484156 289.169708 
-117.691292 30.788006 290.844513 
-117.569115 30.788380 290.845886 
-117.260864 30.781403 290.848358 
-117.138695 30.781782 290.849701 
-117.016525 30.782167 290.851074 
-116.836105 30.790615 290.854065 
-116.713936 30.790987 290.855438 
-116.591759 30.791355 290.856781 
-113.133202 30.765516 290.633789 
-112.825272 30.758875 290.636475 
-112.549759 30.738836 290.380066 
-112.427757 30.739197 290.381409 
-112.400589 30.767687 290.641937 
-112.278473 30.768044 290.643280 
-109.809410 31.068213 293.559357 
-109.686111 31.068567 293.560699 
-109.562836 31.068928 293.562073 
-109.439545 31.069283 293.563446 
-109.316254 31.069639 293.564850 
-109.192970 31.069996 293.566223 
-103.705246 30.693363 289.957458 
-103.583382 30.693701 289.958801 
-103.461517 30.694040 289.960175 
-103.426689 30.722321 290.219910 
-103.363327 30.715715 290.220306 
-103.154472 30.688126 289.963226 
-99.292503 30.670698 289.746643 
-99.170700 30.671024 289.747955 
-99.107552 30.664764 289.748535 
-98.985756 30.665100 289.749878 
-98.863960 30.665436 289.751190 
-98.742157 30.665773 289.752563 
-94.579620 30.642817 289.539520 
-94.457886 30.643141 289.540863 
-94.336151 30.643465 289.542175 
-94.214417 30.643789 289.543518 
-94.092682 30.644112 289.544861 
-90.179771 30.620577 289.329468 
-90.058105 30.620890 289.330811 
-89.936440 30.621202 289.332092 
-89.814766 30.621515 289.333435 
-89.693108 30.621826 289.334778 
-85.786209 30.598377 289.119720 
-85.664619 30.598682 289.121033 
-85.471466 30.571428 288.865784 
-85.349968 30.571728 288.867096 
-85.299805 30.599583 289.124969 
-116.241585 30.877464 290.548187 
-116.119514 30.877836 290.549530 
-115.997452 30.878210 290.550903 
-115.973351 30.906902 290.811798 
-115.729004 30.907644 290.814514 
-112.149109 30.882147 290.592896 
-112.238586 30.895420 290.851105 
-108.939507 31.185781 293.517212 
-108.816223 31.186138 293.518585 
-108.600487 31.157820 293.256073 
-108.477303 31.158178 293.257446 
-108.354118 31.158533 293.258820 
-108.230934 31.158892 293.260193 
-107.063293 31.104532 292.744659 
-102.967346 30.809135 289.913910 
-102.904068 30.802567 289.914307 
-102.723618 30.809813 289.916565 
-102.660347 30.803267 289.916992 
-102.538475 30.803614 289.918335 
-102.416618 30.803961 289.919678 
-102.294746 30.804306 289.921021 
-102.172874 30.804653 289.922363 
-102.051003 30.804996 289.923676 
-98.248581 30.780910 289.706360 
-98.126778 30.781246 289.707703 
-98.004974 30.781582 289.709015 
-97.883179 30.781918 289.710358 
-97.761375 30.782249 289.711700 
-97.639572 30.782585 289.713013 
-94.086578 30.757940 289.493347 
-93.843117 30.758593 289.496002 
-93.721382 30.758919 289.497345 
-93.599655 30.759241 289.498657 
-93.477921 30.759565 289.500000 
-93.356186 30.759890 289.501312 
-89.443954 30.736317 289.285950 
-89.322289 30.736626 289.287262 
-89.200623 30.736942 289.288605 
-89.078957 30.737251 289.289917 
-88.957283 30.737562 289.291229 
-85.051064 30.714071 289.076172 
-84.929474 30.714375 289.077484 
-84.807869 30.714676 289.078796 
-84.686279 30.714975 289.080109 
-84.493950 30.687622 288.824860 
